0.7312697062 0.1128292796 0.6726917351
-0.2149042321 0.9438995763 -0.2507384313
-0.6517065068 0.7463864803 0.1348549256
-0.0177972577 0.9995920846 0.0223365625
-0.4611519457 -0.6120785159 0.6424163551
0.4826145523 -0.2458196635 -0.8406282692
0.1482153594 0.3878067487 0.9097461914
-0.9909527062 -0.1338306692 0.0101037621
-0.2546055183 -0.1886510168 -0.9484655101
0.2192256169 0.7767321739 0.5904466605
0.2123955613 -0.6876553882 -0.6942753003
0.1240276530 0.0903167910 0.9881599155
-0.9051203898 -0.3398028588 -0.2555212266
-0.0561761131 -0.1713540280 -0.9836066497
-0.4616421153 -0.8064221341 0.3695536484
0.3001985350 -0.5969176941 0.7440229204
-0.2499663550 -0.4416897321 -0.8616420382
-0.9321358662 0.3618547121 -0.0135607604
0.3027750422 0.8728597273 -0.3826789389
0.5880552507 0.1820696863 0.7880619592
0.4060243771 0.7498765425 0.5223307154
0.1539587639 0.9685014751 0.1957079245
-0.6846389802 0.7082831798 -0.1720593035
0.0027218304 0.0021592024 -0.9999939647
0.0681256677 0.4638911450 0.8832688713
-0.8239662629 0.5226301147 -0.2189460224
-0.8563623766 -0.4276586872 0.2893985611
0.2695262575 -0.1387454004 0.9529455968
0.0534313297 0.0961992984 -0.9939269530
0.1715090452 -0.9640637518 0.2028933952
0.2161262133 -0.0475055260 -0.9752090468
0.4941835202 -0.5576959742 -0.6669016784
0.7200212227 -0.3789285128 0.5813627275
-0.0777714319 -0.1750040046 0.9814913157
0.1073238511 -0.8125265735 0.5729591246
0.9182569915 -0.0197438858 0.3954924480
0.3732194696 0.5891262231 0.7166850918
-0.8018161413 -0.5657866858 -0.1922922301
0.5259281531 -0.8387303012 0.1411774048
-0.0016952504 -0.0002940716 0.9999985198
-0.3000675633 0.2229785401 0.9274912550
0.1960428992 0.0728548559 -0.9778851424
0.5390937073 0.6471650650 -0.5390318669
0.3910468095 0.0278159760 0.9199503597
0.2025284108 -0.6382896111 0.7426766559
0.9009982077 -0.4321149572 0.0384563834
-0.4236645062 0.2036511862 0.8826293562
-0.9198420431 -0.3721635019 0.1240360573
-0.7799705245 0.5127776597 -0.3587548641
0.8981452609 -0.0054282950 0.4396653546
0.1766941474 0.0491389165 0.9830384251
0.4226945309 0.2982562174 -0.8557876853
-0.5044375717 -0.8616834155 0.0551763333
0.1322657639 0.0739089365 0.9884549746
0.3166171978 -0.9203816739 -0.2294583281
0.9888076615 -0.1049729245 -0.1060193077
-0.9187312716 -0.3742094169 0.1260958478
0.9857000274 0.1453072930 -0.0853302212
-0.7950674614 -0.5110215066 -0.3266875442
-0.4280286423 0.1820182631 -0.8852461992
0.8976454664 0.3950791801 -0.1953075987
-0.3245258554 0.5094866902 0.7969355568
-0.1516828739 -0.2171963284 -0.9642707403
-0.3793401314 0.7194439354 0.5818088076
-0.8817637097 0.1942806229 -0.4298229866
0.3591894343 0.5507442658 0.7534346050
-0.6945303835 -0.5291511141 0.4874696348
0.9053553409 0.3458597998 -0.2463994836
0.5494085837 -0.5138539151 0.6588659667
-0.0157746516 0.0049934001 -0.9998631038
0.3173987569 0.9327552827 0.1709549990
0.0137049236 -0.0086764332 0.9998684386
0.3840643407 0.8468190988 -0.3679565138
0.7383621758 0.6363709942 0.2232784251
0.1090778700 0.2671251342 -0.9574686318
-0.1472762611 0.5948574364 0.7902242297
0.4423119006 -0.8662040491 0.2324881242
-0.1144474764 -0.0351386130 -0.9928076616
-0.0240766510 0.0201895225 -0.9995062271
-0.4466931903 -0.3529149362 0.8221412540
-0.2257603561 0.2527591386 0.9408214918
0.4213339166 0.2675514150 -0.8665413845
-0.8579518969 0.0676139884 0.5092611228
-0.5714126754 0.2242226231 -0.7894376288
0.1951053437 0.9113325340 0.3625009205
0.3743053832 0.1282693562 -0.9183912306
-0.3205081773 0.2373287979 0.9170330147
-0.8526096923 0.4446651250 0.2744624551
0.5924076690 -0.7731554467 -0.2264592877
-0.2860852135 0.7123166612 -0.6409057847
-0.1867854953 -0.8882267886 -0.4197193715
0.1056942032 -0.9047292673 0.4126665582
0.0117503921 -0.0239002958 -0.9996452892
0.7495878363 0.3433891509 0.5658639118
0.5097970075 -0.0543440626 0.8585765744
0.1707845798 -0.3605456366 0.9169729937
-0.1397653314 -0.2964309848 0.9447721013
-0.0121762402 -0.3060409907 -0.9519404662
0.0071685536 -0.2199922951 -0.9754752698
0.8235836913 -0.5508293370 -0.1352662003
-0.5522365406 0.3886340758 0.7375624437
-0.8652961248 -0.4708572444 -0.1719187942
-0.1336189126 0.2964381997 0.9456587016
-0.9941613360 0.0744488792 0.0781063527
0.7642531856 -0.1153976718 0.6345080343
0.9434807416 -0.0130284477 -0.3311711789
-0.9249572138 0.3800328101 0.0054051812
0.9121593268 0.3571966094 0.2009376641
-0.9748364044 -0.2137513235 -0.0632799832
0.3596646296 0.0229987624 0.9327981621
-0.2045455509 0.2920561962 -0.9342720674
-0.6216308896 0.5588017267 -0.5489222780
-0.6236859262 -0.7794807471 -0.0585288844
-0.7033793787 0.4201784861 0.5733301748
0.1465783687 -0.9850673690 0.0903164452
0.0660065032 0.0198387297 -0.9976219556
0.9940266544 -0.0869339379 -0.0659810633
0.5376429035 0.7560271804 -0.3733135555
0.0661767760 0.9581147098 0.2786338764
-0.0333523294 0.9837930637 0.1761784039
0.0218357715 -0.0913728498 -0.9955773207
0.1648215951 0.0006919249 0.9863231535
0.0123257801 -0.8986199308 -0.4385547801
-0.6195391381 -0.6902368515 -0.3738239496
0.7268914460 -0.6850571630 0.0482235330
0.0960179580 0.0979193200 0.9905515426
0.9545434679 0.1110804067 -0.2766006348
0.4349918230 -0.5929562398 0.6776319145
0.2014946741 0.2152969333 0.9555349951
0.3132534246 -0.2170625338 -0.9245302312
-0.0293737342 0.1522500246 0.9879054174
-0.3530750122 0.7213474344 -0.5958153360
-0.3189579037 0.1978360869 0.9268908989
-0.4140905252 0.5258814990 -0.7429520078
0.0203888852 0.8274421336 0.5611807274
-0.0240676763 -0.3789160091 0.9251180492
-0.5726412130 -0.0909753451 -0.8147426144
0.7587613021 0.5657550199 -0.3228041881
0.5490164404 0.8346829067 0.0434211175
-0.8678137445 0.3243490692 -0.3764266014
0.6486628527 -0.3378705484 0.6819677383
0.0284363923 -0.0083099664 0.9995610617
-0.3919971424 0.8749118887 0.2843719875
-0.0105166411 -0.0774763196 0.9969387244
-0.4914507904 0.3910441663 -0.7781777307
0.2998359371 0.8055326377 0.5110925361
0.1468874725 0.6843759623 0.7141803783
-0.1777131089 -0.0170315011 -0.9839349465
-0.7452536423 0.0579702071 -0.6642563238
0.5504330659 -0.4248963990 0.7186699452
0.2190204971 -0.8933861390 -0.3922897251
-0.2854560592 0.5332188749 -0.7963620218
0.3212440376 0.4746806329 0.8194391772
-0.5855861051 -0.1386571758 0.7986633215
0.3605493794 0.5485123587 0.7544125777
-0.1833975136 -0.2048706627 0.9614537761
0.3167886589 -0.6214746816 0.7165292497
0.2623331325 -0.1952376519 -0.9450204161
-0.3781415202 0.5355960301 -0.7550800509
0.6196942321 -0.7795041285 -0.0913913143
0.9239221015 -0.1281054903 0.3604954004
0.0994326697 -0.1992452207 -0.9748920383
-0.6706875660 0.0221129296 0.7414102826
-0.3636663199 0.0131339202 -0.9314366902
0.2374509633 -0.9514017635 0.1960911125
0.1150801689 -0.0513416721 0.9920285215
0.0368461987 0.6823871832 -0.7300617027
-0.0026880272 0.0012919116 -0.9999955527
0.0811240789 0.9737021024 -0.2128922254
0.0041598261 -0.7547212051 -0.6560324675
-0.4062706544 -0.1500396028 -0.9013502499
0.1043040570 0.1070352517 0.9887689915
0.0372780222 0.1744426587 -0.9839614362
-0.7634278703 -0.6012783877 0.2358859625
0.0303360663 0.5969668470 -0.8016921521
-0.3665701918 -0.5281582805 0.7659472078
0.2818474105 -0.7858134888 -0.5505081271
0.7157688000 0.6813817101 0.1529509399
0.3336595678 -0.9321895489 0.1403350909
0.2973723656 -0.0841114168 0.9510493919
0.0828815463 0.3643871642 -0.9275519629
0.4408574284 0.0087219709 -0.8975347654
0.5880714465 0.1482107006 -0.7951135529
-0.3693820300 -0.8558713539 -0.3619960519
-0.8800767461 0.0692176119 -0.4697593460
0.1000915042 0.1932504478 -0.9760307143
-0.8452595424 0.4721958048 0.2501348196
-0.0719473834 -0.7754515527 0.6272945587
0.8749718714 0.3170173782 -0.3659565632
-0.3987048649 -0.9001666589 -0.1753123411
0.1168280471 -0.1757884102 0.9774710442
-0.7334661685 -0.6797223221 -0.0022236137
0.3863834856 -0.6305614669 -0.6731270597
0.9683587932 0.1376329287 0.2081788282
0.1453248734 0.0790938672 -0.9862174412
0.9746624191 -0.2113093736 -0.0733588269
-0.7801499673 0.6005263915 0.1753113847
-0.3189790091 0.1419931074 0.9370647519
-0.5108994265 0.2130438228 -0.8328229738
0.0119149910 0.7256005183 0.6880130237
-0.7287981743 -0.4501920188 0.5159267073
-0.1309014700 0.1853959124 -0.9739061355
-0.2010195567 -0.4514291208 -0.8693692465
0.3628896010 -0.5058341557 0.7825873398
-0.0791551075 -0.8177980506 -0.5700358036
-0.0617491253 0.4912121428 0.8688484772
0.1009440396 0.6990741421 -0.7078881583
0.0116151356 0.1254773219 -0.9920284927
-0.3446730405 -0.5360224807 -0.7706363574
0.2593241368 0.6397135347 -0.7235451511
-0.6995031820 -0.4021526645 -0.5907355862
-0.3953114734 -0.1969994953 0.8971733600
-0.1167226117 -0.0314934187 -0.9926650979
-0.5638085518 -0.4816588232 -0.6709133290
-0.1281450787 -0.0826315183 -0.9883070732
0.6336292783 -0.5844312090 -0.5069064012
-0.5080045132 -0.0520698731 0.8597791245
-0.9906569880 -0.1358832237 0.0115966178
0.8266639624 0.5164601575 -0.2233732281
0.0265485996 0.0175083840 0.9994941862
-0.2068387723 -0.2817811315 -0.9369189486
0.1478644580 -0.9635119934 0.2231159802
-0.0198624529 0.1054159782 0.9942298298
0.6524914295 -0.0017169688 0.7577941584
-0.2853669879 0.0058199332 -0.9584006525
0.5998144687 -0.7903868386 0.1245441626
0.0863991495 -0.3463020694 0.9341359985
-0.0447110216 -0.3110669045 0.9493357180
0.0053464308 -0.0319407339 -0.9994754650
0.3935712969 -0.8559726282 -0.3352797251
0.2486634118 0.9291640415 -0.2735337120
-0.2912517114 -0.5037754537 -0.8132544084
-0.3955338318 -0.1108650842 -0.9117356640
0.1133238766 -0.1740275496 -0.9781984006
0.2227212732 -0.8616090376 -0.4560976878
0.1687398263 0.6056396891 0.7776422301
-0.5776415528 0.5975526195 -0.5561124916
-0.3112533620 0.7467713717 0.5877532332
-0.0042781201 -0.0000642996 0.9999908467
0.1363199185 -0.8639827434 -0.4847171328
0.3041956748 0.4452761711 -0.8421366415
0.8089245041 -0.1149831761 0.5765587705
-0.0341213776 -0.0094575808 0.9993729463
-0.0274363334 0.0380189410 0.9989002992
0.2263588478 0.1575467175 0.9612183435
-0.2372448610 -0.6131213443 -0.7535231205
0.3097083168 -0.0650256915 -0.9486055123
0.3349880179 0.9121221306 0.2362546226
0.6483460569 -0.4433181128 0.6189640065
0.9088066791 0.1591606537 -0.3856660555
-0.5510976165 -0.5161966376 0.6556160831
0.1634150853 0.7401499548 -0.6522833390
0.3696679580 -0.1044291216 -0.9232768596
-0.6724301687 -0.7291728756 -0.1270613462
0.0709754918 0.9613835889 0.2659023778
-0.9393906563 -0.2172419386 -0.2652378838
0.4666721361 -0.8604365966 0.2046117805
-0.0558353280 0.1854715509 -0.9810620368
-0.1327136402 -0.5634141783 -0.8154456165
-0.1311575980 -0.2943077606 0.9466681713
-0.3010298998 -0.7400377294 -0.6014359139
0.6932181617 -0.0666297654 -0.7176413133
-0.7544607920 -0.4635940169 0.4646175856
0.4823566544 -0.8129226300 -0.3263263023
-0.0011587662 -0.0000689167 0.9999993263
-0.8300583431 -0.3140120913 -0.4608682606
0.2503442495 -0.9631106860 -0.0987196197
-0.6950151272 0.4012789673 0.5965979914
-0.3454956824 -0.3355737575 0.8763692068
0.4560600280 -0.4231737219 -0.7829005377
-0.9134567509 -0.0559057746 0.4030772985
-0.4030267149 0.6552583693 0.6389099597
-0.0853071563 0.9567256108 -0.2782063889
0.5645752034 0.2763483958 0.7777444335
-0.5893221491 -0.2976371359 0.7510735915
-0.0102919630 -0.0452955117 -0.9989206135
-0.5953543061 -0.7255892086 -0.3450703560
-0.5487855254 -0.5123430284 -0.6605596630
0.9633111481 0.1039173530 0.2474526533
0.9491958548 0.2755839955 -0.1519233049
-0.0738577600 -0.0715657329 0.9946976310
0.2536074423 0.1134068331 -0.9606363284
0.1777906129 -0.1195943575 0.9767741231
0.7817170351 -0.4181498248 0.4626761297
0.3498644637 0.0747238793 -0.9338153987
0.9109373631 0.3775699705 -0.1662348880
0.1511071019 0.1614759794 -0.9752395356
0.6094995728 0.0967034574 0.7868663877
-0.0979486486 0.2731476946 0.9569725175
0.2278377813 0.0573702916 -0.9720075077
0.2898949358 0.6152903706 -0.7330611748
0.2879816064 0.6148411560 -0.7341913560
-0.0737583009 0.9420777635 -0.3271837412
0.6785647276 -0.2264659145 0.6987582557
-0.0123837471 0.9560402567 0.2929738392
-0.8005200802 0.1905650901 -0.5682011506
0.3191593823 -0.9466643219 -0.0443164786
0.7295909535 0.0124288364 0.6837708422
-0.4271377728 -0.8209842496 -0.3788643358
-0.0165095465 -0.0000207695 0.9998637079
-0.1476386353 0.9392576779 0.3098351948
0.9275213137 0.3375785929 -0.1604521928
0.3626822163 -0.6097414905 -0.7047530949
0.0513360988 0.3303073583 0.9424763413
-0.7043282731 0.4527337317 0.5467667253
-0.8650395116 0.4815455012 0.1407855589
0.0358679242 -0.9945109740 0.0982924954
0.7170992520 -0.3522464771 -0.6014075840
-0.3604657828 -0.3526893612 -0.8635245416
0.6581391132 0.1009884480 -0.7460926491
0.1146863886 0.1716196505 -0.9784649855
-0.9008924435 -0.4112233047 -0.1388819600
-0.0570767052 -0.0946909617 0.9938691420
0.0911608762 -0.5258773852 0.8456610848
0.3543442449 -0.0685009297 0.9326026907
0.3314487506 -0.2226877347 0.9168161749
-0.7007310829 -0.5130030424 0.4957860708
-0.2631525748 0.2021566462 0.9433363201
-0.6760951833 0.6614974838 -0.3245248558
0.0390521246 -0.6956476957 0.7173208592
0.1423295007 -0.4426797693 0.8853117728
0.9867700183 0.1287768572 -0.0984959492
-0.9071785317 -0.3998583167 -0.1309214966
0.7706632437 -0.4263934881 0.4735681134
-0.1775473582 -0.3187124244 0.9310742860
-0.0637731813 0.1481545758 -0.9869058734
0.3459770241 -0.8043200607 0.4830829523
0.2837762943 -0.9367887372 -0.2046897081
-0.9311555321 0.0266137747 0.3636496694
-0.4659102220 0.2490182760 0.8490686446
0.8577536701 0.1024956821 0.5037392943
-0.0241327285 -0.2968231446 0.9546274835
0.3704317986 -0.0587294758 -0.9270011495
-0.3994223802 -0.8328202326 0.3832391191
-0.2762704130 -0.9031588693 -0.3286011497
-0.8803705578 0.1912212483 -0.4340300855
0.1261308228 -0.0997674539 0.9869840276
0.8495058406 0.5217944967 0.0779123222
0.3375336500 0.2177826874 0.9157738456
-0.2346315569 -0.7538449859 -0.6137310240
-0.9464186852 -0.3207212675 -0.0378092712
0.7157115762 -0.0879734374 0.6928330347
-0.1013270201 0.1160960337 0.9880559427
-0.2781629722 -0.8790124619 -0.3872498582
-0.3213868876 -0.6727908431 0.6663804844
-0.8943354700 0.2448089657 0.3744764844
0.3429307130 -0.0818386271 0.9357889533
0.7444738621 0.1793688681 0.6431061171
0.5497126075 -0.4360916976 -0.7124886528
-0.4224823620 -0.2949837881 0.8570257981
-0.3083014691 0.2782861882 -0.9096741183
-0.3412365442 0.6830989657 -0.6457038206
0.1089864060 -0.4783131074 0.8714003297
0.0407285080 -0.0035787691 -0.9991638409
-0.4965550515 -0.8669986776 0.0417896378
-0.0285179528 -0.8119179398 0.5830745968
-0.7484918739 0.0179653583 0.6629005661
0.4406665322 0.4915779522 0.7511085969
0.1031911966 -0.6147549256 0.7819385899
0.9564892850 0.2426452036 0.1620233096
0.8929095359 -0.4483188224 -0.0415065549
0.1245195958 0.3593210161 0.9248693300
0.0796928117 -0.8050007222 0.5878970088
0.0671018425 -0.4654802128 0.8825109145
0.4865746102 0.3839965465 0.7847240286
-0.6787306392 -0.7046472758 -0.2068742034
-0.0687284900 -0.0245397831 -0.9973335419
0.0366758225 0.9686146458 -0.2458466024
0.8635139615 -0.2589329129 -0.4327786789
0.9299755806 -0.2248735663 -0.2908217644
0.8540056135 0.4167272081 -0.3114688527
-0.1568025451 -0.4035017681 0.9014428906
0.0745381303 0.2129661096 0.9742122476
-0.9890623479 0.1418083773 -0.0405716178
0.0233307375 0.0889590725 -0.9957619997
0.5329933080 -0.2585025931 0.8056640385
0.1463922827 0.5988876732 -0.7873390975
0.5116453099 0.1761215623 -0.8409520035
-0.5495235077 0.2921463196 0.7827352314
0.0540922730 -0.9866054621 -0.1538950554
-0.7497804593 0.4681099113 -0.4676562560
0.1550805266 -0.7083572597 -0.6886073067
-0.1238840496 -0.0011743452 -0.9922960058
0.3013649182 -0.0153455857 0.9533853885
-0.0500549628 -0.9841443541 0.1701598981
-0.9062572948 0.3321232547 0.2615183727
-0.2055363409 -0.3804850296 -0.9016573378
-0.0879888928 0.7400232162 -0.6668010155
-0.0074115489 0.0325761165 0.9994417770
0.1792363412 0.9837099458 0.0137505124
0.3032921701 0.2753461439 0.9122490672
-0.0235045794 -0.0346289801 0.9991238004
0.1866423301 -0.1248299821 -0.9744650410
0.3462192000 0.4286583741 0.8344964133
-0.4408494374 0.1348063778 0.8874001431
-0.4124868172 -0.0666201122 0.9085242904
0.9024992469 0.0261719881 -0.4298954948
0.1217723872 0.3814935940 -0.9163155153
-0.3636190847 -0.1620713329 -0.9173407460
0.6182419258 0.2067536005 0.7583072397
-0.7682546591 0.4766148287 -0.4273442218
0.1632101702 0.1951838426 -0.9670913648
0.2370212717 0.1374009540 0.9617389950
0.2241536816 0.4342004792 0.8724821321
-0.6590567053 0.0254827927 0.7516614175
-0.6041867195 0.0741745411 0.7933829752
-0.0017457049 0.3216245012 -0.9468656889
-0.0012868334 0.0956130352 -0.9954177473
0.1761005604 -0.4925901419 -0.8522579097
-0.0221764428 0.8001011656 0.5994550277
0.2973175921 0.8052432574 0.5130161263
-0.1612130939 0.7180246599 -0.6770900429
-0.1322570714 0.1410797081 0.9811241425
0.4186311464 -0.0078851868 0.9081221212
0.2536188373 0.2468281436 -0.9352824990
0.9818609116 0.1346436088 -0.1334925053
-0.5397414203 0.6645373084 -0.5167875433
0.3013930101 -0.0632627661 -0.9513990098
-0.5814110562 0.2351869996 0.7788762796
-0.8434807498 -0.2397828171 -0.4806708077
0.3954743024 -0.2769901593 -0.8757148667
-0.8408998807 0.4413848501 0.3131561986
0.5006379719 0.3820665556 -0.7767797424
0.7029408388 0.4886772960 -0.5167868783
-0.1957496877 0.1323167480 0.9716863372
-0.8601783036 0.0380132624 0.5085747515
0.6389419795 -0.7608419568 -0.1134577611
0.8662239967 0.0874538795 0.4919428895
-0.9638012507 0.2572953822 -0.0699016125
-0.1603672302 0.6554783120 0.7379908766
0.0600686899 0.4058133381 -0.9119798721
-0.2243345137 -0.8009284000 0.5551465788
-0.5167841373 -0.7852830403 0.3409761019
0.4527318996 -0.1294516519 0.8821995789
-0.3192801271 0.6491397080 0.6904185976
-0.3601766735 -0.1632967039 0.9184807839
-0.3237119655 -0.0227129193 -0.9458830196
-0.2767745904 0.5046844209 0.8177343465
0.0845659332 0.3586056728 0.9296507809
-0.3704027032 0.4359467235 0.8202147839
-0.3156287258 -0.1883038263 0.9300108475
-0.5827872908 0.6136397630 -0.5327337186
-0.6850951578 0.2483308319 -0.6848185327
0.8584524627 -0.1386075677 0.4938089827
0.9051012443 -0.3384981937 -0.2573144195
-0.1394757534 -0.0111602456 -0.9901625943
-0.7229565194 -0.6382802985 0.2644468408
-0.2618141040 0.9611340517 -0.0876054196
-0.8013985472 -0.1499225692 0.5790367793
-0.2008159338 0.0423704159 0.9787122706
0.0647275082 0.1795956087 -0.9816087647
-0.0708838340 0.0365343320 0.9968152911
0.3521752046 -0.3746259520 0.8576876012
0.0675179878 0.9810324649 -0.1817047717
-0.1405193832 0.7771748932 0.6133950508
0.5582947437 -0.8008197824 -0.2167825067
-0.0836753460 0.0211978509 0.9962675783
0.4631849511 -0.4990423501 -0.7324045562
-0.3565890910 -0.7903429451 -0.4981990057
-0.2977380036 0.2778451617 -0.9133203968
-0.4047163994 -0.2917500407 0.8666524965
-0.6471480379 -0.2801499977 -0.7090242562
0.1230418767 -0.1148724048 -0.9857307072
-0.9774334469 -0.1441583589 0.1544092759
-0.4563848377 -0.8713808642 -0.1800229691
-0.3472005714 0.8932246943 0.2856596029
0.2444567244 0.0385787353 0.9688924559
-0.3360580350 0.6538713929 0.6778769789
0.4731734190 -0.3572494950 0.8052823814
-0.8092090447 0.4206941249 0.4101184892
-0.5515203436 0.1171749128 0.8258906407
-0.2605466395 0.0759221000 -0.9624714455
-0.3709320680 -0.7527901809 -0.5437980732
0.5765402331 0.0647315660 -0.8145005733
-0.2823703473 -0.4426690493 -0.8510646860
0.1455268751 -0.3863845276 -0.9107847855
-0.4634283352 0.2822264273 0.8399895368
-0.6669195057 0.3232060507 -0.6713838110
-0.0310044579 0.9622689943 0.2703277756
0.4783101360 -0.7974798658 -0.3677570903
0.0635108236 0.1874013603 -0.9802280885
-0.2259570871 0.3470889245 0.9102047425
0.8987370720 -0.3760486953 -0.2255195208
0.9067301384 0.1659374825 -0.3876921563
0.7527984752 0.1612654241 0.6381911302
0.3960227115 0.2091250041 0.8941100294
0.0418030247 -0.2981912881 -0.9535903014
0.4275302758 -0.9037187415 -0.0225898094
-0.4682556104 0.8373629393 -0.2820638070
0.2448682614 0.6275273736 0.7390865511
0.6748156702 -0.7158878769 -0.1792438536
-0.0306951651 -0.0323915057 0.9990038024
0.3938137347 0.3701028129 -0.8413885251
0.2493019871 0.1885978419 0.9498838736
0.0205485480 -0.3846466501 -0.9228351487
-0.0165804469 0.0002642976 0.9998625000
-0.6676652677 -0.7443765266 -0.0112550903
0.0204702765 -0.1779383061 0.9838287082
0.0447089555 0.1410337628 -0.9889947356
-0.6931419217 -0.6415445584 0.3285952768
0.6730088356 0.0074746862 -0.7395966713
0.3106820508 0.9456482083 -0.0960527431
-0.9319522002 -0.1115614383 -0.3449915100
0.4256005823 -0.1442229724 0.8933442106
-0.8082789687 0.5304554273 -0.2555428503
-0.1661875556 0.8186284131 -0.5497537791
-0.4811488824 0.7969067839 -0.3652880107
0.4948089780 -0.7778550896 -0.3874345555
-0.4598795586 0.7364647219 0.4961154150
0.2725402283 -0.5126243660 0.8142100978
0.1658200813 -0.5346057128 0.8286739000
0.0763557768 0.0539798700 0.9956183852
-0.1661694109 0.1103208770 -0.9799066440
-0.0551932482 0.2548602247 -0.9654014560
-0.0761610932 0.3783691141 -0.9225162879
-0.3361085382 0.9393350594 -0.0684156174
0.8868086077 -0.4277998570 -0.1748078250
-0.1269021119 0.4739062190 -0.8713832392
-0.2043077825 0.6470751190 0.7345421162
0.0702270575 -0.0739330876 -0.9947874441
-0.9717322703 0.0165653540 -0.2355036812
0.1751547300 -0.4430102829 0.8792398477
0.6195466234 -0.7846035171 0.0236495764
0.1960060543 -0.7130334528 0.6731752535
0.5601389091 -0.1945122975 0.8052387029
-0.3519300459 -0.5431630680 0.7623116977
0.0148429413 -0.0100151574 0.9998396790
-0.6033947933 -0.3605445792 0.7112821732
0.7095564463 0.6277314350 0.3201294973
-0.4762362692 -0.1930088825 -0.8578732932
-0.0997736124 0.1162223922 0.9881991610
-0.1119002008 -0.1160403972 -0.9869209549
-0.3962730900 -0.2766242759 0.8754693873
0.5700742490 0.2587730301 0.7797768075
0.2518626029 0.9051618974 -0.3424137391
-0.5472483791 0.7500837255 0.3713402972
-0.8571792293 -0.1870348175 0.4798559637
-0.3390318778 0.1994388149 -0.9193919430
0.2361279180 0.0638636698 0.9696210796
0.6865339821 -0.0941243852 -0.7209796748
-0.3264910702 -0.0923980160 0.9406732630
0.2054430679 -0.0752114701 -0.9757747592
-0.4201491777 0.8629980501 0.2805513036
0.0676325855 -0.7777633278 0.6249080247
-0.0053789026 -0.0063719746 0.9999652321
-0.8744094434 -0.4222198468 -0.2390366629
0.1216407417 0.8653372284 0.4862047009
0.3233779573 -0.0250579453 0.9459380509
-0.9514725618 0.1919680583 0.2405165871
0.2356940302 -0.9683534363 -0.0820971772
0.2847418768 -0.0181761973 -0.9584318909
0.7517841848 -0.3445166273 0.5622533531
-0.4488693652 -0.4756777647 -0.7564700636
-0.1219239012 -0.0773397298 -0.9895216665
-0.2012569101 0.1982586260 -0.9592649130
0.6768233261 -0.3800845678 -0.6304331103
-0.0694765033 -0.4658029503 -0.8821568041
0.0600725353 0.1116916314 -0.9919255365
-0.7155785213 0.3143571671 0.6238004098
-0.0468770223 -0.0494941178 -0.9976737328
-0.8939309457 0.4469803078 0.0331069284
0.2107463364 0.8999229982 0.3817388886
0.5578312330 -0.4448564025 -0.7006618989
-0.1714976522 0.3898892313 -0.9047513154
0.6080606037 0.1582306401 -0.7779623171
-0.6076925033 -0.0606970467 0.7918495374
0.9039471071 -0.3421632456 0.2565227883
-0.8368695187 -0.5473799621 0.0049584105
-0.4026093525 -0.1154491904 0.9080623292
-0.2646816040 0.8948265978 -0.3594843646
0.1923602413 -0.1637233756 -0.9675702527
0.2284652260 0.7533311362 0.6166813114
-0.8360244624 0.4940054734 -0.2387921490
-0.3283454179 -0.3930305089 -0.8589041306
-0.3386188964 -0.9206640041 -0.1942035905
0.5016317968 0.2049979207 -0.8404411895
-0.3871850004 -0.0593539139 0.9200896089
-0.4543965253 -0.2065530541 -0.8665215714
-0.6161004567 -0.0423386791 -0.7865288701
0.6726660156 -0.7260018160 0.1429748044
-0.3839134618 -0.0624053740 -0.9212578483
-0.0015097266 -0.0855571641 0.9963321195
0.4671430601 -0.7580737998 0.4550840312
-0.9435334660 0.2931192713 0.1543557299
0.0983889632 0.1086822860 -0.9891955179
-0.4709091869 0.7336488147 -0.4899019844
-0.0509209553 0.1261941191 0.9906977847
-0.2410779670 0.5145395906 0.8228793493
0.4884656643 0.1907800210 -0.8514718307
0.4197396881 -0.8707716634 -0.2560767550
-0.0489250480 -0.0380045990 -0.9980791502
0.6751751830 -0.6380520589 0.3701729898
0.1795183870 -0.8614162059 -0.4751160584
0.3689555000 -0.8230036939 -0.4318990146
-0.1976965090 0.0514984663 0.9789095966
0.3812677206 -0.1658216848 -0.9094713267
0.7573983657 0.4425671177 0.4800854736
-0.4382869836 -0.5045263756 0.7438801357
0.2477037435 -0.2104722759 -0.9456977723
0.2910482954 0.8058617833 -0.5156332766
-0.0962475224 0.6084624208 -0.7877245057
0.2943959570 0.1448414848 -0.9446438296
-0.2432234312 -0.0259061063 -0.9696242758
0.3985818962 0.6847916122 -0.6100761590
-0.3964803991 -0.7071515276 0.5854400142
0.6032225266 -0.0240716967 0.7972095940
-0.0271299733 -0.0521062470 0.9982729605
0.5837776312 0.7939823324 0.1696930558
0.3327256165 0.4346107437 0.8369033191
-0.3184899757 -0.5753594616 -0.7533429666
-0.4116008560 -0.3308373494 -0.8491945499
0.0052488749 -0.0091902855 0.9999439924
0.3887897218 0.3236010792 -0.8626267407
0.9003982625 0.4070256356 0.1536655486
-0.6727777281 -0.7183310673 -0.1771174928
-0.3058811174 -0.3788540209 -0.8734451173
-0.9031611169 -0.4218113019 -0.0798449904
-0.1276894807 -0.0334898312 -0.9912486205
0.0631226109 -0.1252643339 0.9901133181
-0.0792916225 0.0345436849 -0.9962527653
-0.0772499579 -0.8199892843 -0.5671419731
-0.2490024790 0.6806945911 0.6889503894
0.7630282453 -0.0701926805 -0.6425425157
-0.8112220764 0.3374049972 -0.4775736704
0.2007355123 -0.6369613582 -0.7443020101
-0.0235918922 -0.0423015575 -0.9988263117
0.0569209438 -0.0623393915 0.9964305327
-0.5623530447 0.5026733620 0.6565657197
-0.0032756291 -0.4002788659 0.9163875271
-0.7217947619 -0.6310329051 -0.2842706359
-0.9673233896 0.1803086419 -0.1782533410
0.6664440304 0.0094708027 0.7454949083
0.0264079230 -0.8583234944 0.5124289224
-0.7697944167 -0.5394044546 0.3412614691
0.1458086970 -0.0181922366 0.9891455234
0.0446960387 0.3272609838 0.9438763227
0.6143501649 -0.3782981388 -0.6924336741
0.3089177585 -0.0373974243 0.9503532244
0.1318138770 0.6075872512 0.7832386826
-0.5647819355 -0.8075549406 -0.1699305248
0.1794073322 0.5061211902 0.8435960823
-0.8905703262 0.0401669414 0.4530685498
-0.0170817548 -0.7778966188 0.6281600625
0.4295515887 0.6314192135 -0.6455967855
-0.1964331323 -0.9427466128 0.2695233731
-0.2221072227 -0.9465044022 -0.2340892955
0.7222378674 0.0552724742 -0.6894326773
-0.5422799814 0.1300229697 -0.8300761707
-0.6328436274 -0.0471821320 0.7728407272
-0.6352906050 -0.1551786132 0.7565219396
-0.4404639430 0.3058687619 -0.8440591302
-0.6858223319 -0.3089483998 -0.6589374897
0.4239486524 -0.1980856816 -0.8837587923
-0.3203622491 -0.2699281196 -0.9080235898
0.1534801833 -0.9618723016 -0.2263747085
0.0614571926 -0.4137637082 -0.9083075510
0.6932453901 -0.4546222713 -0.5592221558
0.0228624538 -0.1090183201 0.9937767929
-0.0951364066 -0.8531700382 -0.5128839537
-0.8830557746 0.1827598173 0.4322167837
-0.2120836875 -0.7868298232 0.5795854888
-0.6709761529 -0.4953657869 -0.5517279578
-0.9959030315 -0.0904182721 0.0012991771
-0.9110839752 0.4121386167 -0.0082310816
0.7264129589 0.2577381558 -0.6370990945
-0.0897816013 -0.1075674174 -0.9901356042
0.4816878492 0.0096017558 -0.8762902614
-0.5577660269 0.7531968753 -0.3486997652
-0.1681892256 0.1347167326 -0.9765059070
-0.2744938984 -0.1413757501 -0.9511393152
-0.3481464910 0.9218412166 0.1703020619
0.9593929823 -0.1268809853 -0.2519252292
0.1702324876 0.4756679181 0.8629953255
-0.6127056846 0.4647266421 0.6392346144
0.4171137119 -0.2398919074 0.8766230798
-0.0989540920 -0.8306542980 0.5479247438
0.0695189722 -0.3112459817 -0.9477832302
-0.5542578235 -0.8133952842 0.1765966500
-0.2423298861 0.6375138452 -0.7313359854
0.4741856787 -0.0136355846 0.8803192676
-0.0892166543 0.0166670743 0.9958727816
-0.0810901781 -0.1350119914 -0.9875201999
-0.4176552652 -0.1929124497 -0.8878901206
0.6130987065 0.4712477090 0.6340627515
-0.7829646336 0.6211810519 0.0331735326
0.1243174300 0.3310008849 0.9354055755
0.1332807992 -0.0367435113 0.9903969623
-0.2347900837 -0.2012951550 -0.9509752242
-0.1124902415 -0.9935383885 0.0150803201
0.8190508737 0.4030434220 -0.4083033997
0.9992274632 0.0055514463 -0.0389057611
0.6017578051 0.7752830014 0.1918953146
0.4226446114 0.0191902122 0.9060923067
0.7095932699 -0.1180821002 0.6946466792
0.0934675828 0.0534533268 -0.9941863773
0.1693983751 -0.7599538983 -0.6275143528
-0.8595794651 -0.2541238210 -0.4433330878
0.9148578315 0.1595083251 -0.3709342832
0.0336184620 -0.0188592979 0.9992567868
-0.6029313246 0.6504137925 0.4619910348
-0.1484814339 0.1112175486 -0.9826412981
0.2006290680 0.7596038108 -0.6186679463
-0.2086573875 -0.9520265394 0.2238471864
0.4493784610 -0.0796929167 -0.8897797693
0.0150338598 0.0294134414 -0.9994542674
0.6132296551 -0.2962481925 -0.7322474982
-0.1815899514 0.3755425679 0.9088414984
-0.3505145848 -0.7936697850 -0.4972200702
0.3839424037 -0.3033980810 -0.8720882037
0.3642101124 0.6685479019 -0.6483785136
0.6496785129 0.2891082758 0.7030890660
-0.6121036580 0.0398893002 -0.7897708247
-0.1401447458 0.9059449385 0.3995287457
0.5369896480 -0.5950430087 0.5979681728
-0.2441131914 0.0697073897 -0.9672381452
0.7098068655 -0.4901696546 0.5058734263
0.8074841414 -0.0336770313 0.5889271762
-0.9938386593 -0.1078613856 -0.0255076601
0.6651993869 0.5609209320 0.4928260176
-0.1226314046 0.9809228478 -0.1508373469
-0.0672759096 0.9341526696 0.3504750232
-0.9547757494 0.1928262749 -0.2263212232
-0.9620351705 -0.1417777030 -0.2332110927
-0.4264468271 -0.0623754838 -0.9023593534
0.0443523389 -0.2287214658 0.9724810338
0.0137545541 0.6831704389 0.7301294157
-0.2262861396 0.2319203366 0.9460483817
-0.2928946320 0.1400807661 -0.9458277399
-0.6359921719 0.1423603098 -0.7584507231
0.3825491342 0.8401800790 -0.3843872980
-0.5889447930 0.5623624198 -0.5804244478
-0.5580488928 -0.7888562164 0.2574632072
-0.1561855928 0.6836272992 -0.7129234014
0.2598187498 -0.8565136970 0.4459579623
-0.8283930704 -0.2482374497 0.5021385161
0.4886328090 -0.7603310109 0.4279424398
0.6299586760 0.4413217552 0.6390517779
0.5544929050 0.0269930771 0.8317505588
0.4869475946 0.8101876023 0.3263098055
0.6499886033 0.6771409606 -0.3449564248
0.6621191788 -0.0342414707 0.7486158660
0.6707753663 -0.4948189518 0.5524623181
-0.4514481333 -0.0400424764 -0.8913984423
0.9716164418 -0.2088151714 -0.1111652566
-0.2664285756 0.6526345301 0.7092841351
0.9654939828 0.1055408790 0.2380808519
-0.9910813891 0.0906332443 0.0976897911
0.3055142465 -0.4124369734 0.8582288670
0.4298815821 0.2223737720 -0.8750724147
-0.2165766663 -0.1766162652 -0.9601568843
-0.3258393866 0.9275676030 -0.1828853084
-0.1903174071 0.3013136362 -0.9343390055
-0.9666120606 -0.1796381818 -0.1827327225
0.1660017857 0.6036982367 -0.7797383190
0.8410717301 0.5241436879 -0.1336852246
-0.1472589232 0.4974343375 -0.8549116267
-0.2815755905 0.6336144186 -0.7205886173
-0.3012566256 -0.9525459056 0.0435975145
-0.1814000934 -0.0135545019 -0.9833159622
-0.1601588666 0.7730203216 0.6138311819
-0.1651746462 -0.0893134537 0.9822120154
0.7807909820 0.6124614612 -0.1235168042
0.3419317036 -0.5175232967 -0.7843802315
0.4548230857 -0.2209709253 0.8627327575
0.0611983277 0.0054418699 -0.9981107908
-0.1006970957 0.9189703931 0.3812525561
-0.4939774537 0.3735014163 0.7851642932
0.1518719319 -0.0470991019 -0.9872773627
-0.0410266295 0.7842387123 -0.6191013308
-0.8798949099 0.3322102160 0.3397371337
-0.0299737174 -0.0540113754 -0.9980903504
0.0422914687 0.7701092387 0.6365085956
0.2626539343 -0.6694900199 -0.6948352496
-0.2021768107 0.3659644963 0.9084021822
-0.3906362228 0.4708231924 0.7910302542
0.0709631934 0.1379992404 0.9878868532
-0.4532009727 0.4176987288 -0.7874875557
0.1935118292 -0.8279268821 -0.5263936263
-0.5839940799 -0.4570626866 0.6708536466
0.0599589604 -0.1876918569 -0.9803961903
-0.7697159833 0.2364508535 -0.5929825452
-0.2273303476 -0.4282557983 0.8745958405
0.6177213593 0.7368901710 0.2746146357
-0.0290032328 0.2501432758 -0.9677743301
-0.1322027325 -0.4882040160 -0.8626582616
0.6518859427 0.3673342009 -0.6634080965
-0.3050208010 -0.8215281084 0.4817197091
0.0912243574 0.0258447092 0.9954949360
-0.5408393582 0.0244752803 -0.8407697362
-0.1462248147 0.2734289714 0.9507128384
-0.6539313710 -0.4865322112 -0.5793618641
0.7876173251 0.0892933272 -0.6096602750
0.1512844765 0.1055134200 -0.9828427775
0.6470398938 -0.6197959319 0.4440634850
-0.7358423111 0.2060164324 0.6450529612
0.3767882401 -0.5819318755 -0.7206843376
-0.0833868643 0.0161596622 -0.9963862184
-0.9510705581 -0.0465274822 -0.3054504656
-0.0001062536 -0.0464754954 -0.9989194247
0.8537779070 -0.4722027297 -0.2192894608
-0.6044169937 0.6888563444 -0.4001962449
0.1123505246 0.3304630115 0.9371080822
0.2324101515 -0.9719150219 -0.0369690652
-0.1978538318 -0.7746146593 0.6006879313
0.9251445591 -0.2922705838 0.2422508013
-0.6409135732 0.7451883346 -0.1841850638
-0.6086675823 -0.3798749131 -0.6965765031
0.7189680160 -0.6884574517 0.0954532824
-0.9753400235 -0.0455459747 -0.2159569465
-0.7293325762 0.6836994549 -0.0250808437
-0.6111046554 -0.4191041756 0.6714929562
0.0532651567 -0.2000031112 0.9783463490
-0.0378513776 0.0248119547 0.9989752950
0.3838670996 0.7078573677 0.5929451888
0.4482341900 0.8869550040 -0.1113415095
-0.1277461399 0.9678188411 0.2168123950
0.8925329411 0.3007991004 0.3360131697
0.8587518302 0.0707865198 0.5074786328
-0.8643048039 -0.0497151438 -0.5005053550
0.0323226747 0.0059906976 -0.9994595321
0.1156616143 -0.2148897018 0.9697653361
-0.0022827338 -0.1847882067 -0.9827757159
0.7792858750 0.4913038803 0.3890167376
-0.8005214151 -0.2211827320 -0.5569952091
-0.1009798643 0.7158247277 0.6909399585
0.0518164197 -0.9612393967 -0.2708022912
-0.3668187823 0.9263636323 -0.0854072691
-0.5627476967 -0.8019122273 -0.2006285363
0.8657845197 -0.3851784317 -0.3194600777
0.0089401016 0.6940752650 0.7198469289
0.3247425567 0.0746653806 -0.9428506524
-0.3682732006 0.8304275123 -0.4180490360
-0.1790290416 0.0480283758 -0.9826707879
-0.0665060668 -0.8947990340 -0.4414879748
-0.6385214531 -0.1093465325 0.7617963571
0.1953517740 -0.0055449042 -0.9807175630
0.1168771657 0.0114907728 -0.9930799013
0.0198918928 -0.2203785032 0.9752115811
-0.9013076340 -0.3042393025 -0.3083553075
-0.6786842531 -0.2932306727 0.6733524019
-0.2280948797 0.1438825394 0.9629488775
-0.4486007956 -0.0135852819 0.8936289870
-0.3949109893 -0.0313252810 0.9181851868
0.4636153814 -0.2423181301 -0.8522574153
0.0382488848 0.0272180659 0.9988974921
0.9941930479 0.0398108133 0.0999764106
-0.4147555730 0.0397001356 0.9090663969
0.6534594698 0.6961725822 0.2972111323
-0.2644898546 0.8412345476 -0.4715607625
0.1359701673 -0.2528939465 -0.9578918339
-0.0501254210 -0.6560050231 -0.7530902017
0.4843467488 -0.6095953749 -0.6275362188
-0.7341296283 0.0111874021 0.6789171753
-0.4261887390 0.0651663703 0.9022840478
0.9082026474 -0.1806243807 -0.3775483867
-0.3330156827 -0.3158538080 -0.8884463557
0.4639351229 0.3629629714 0.8080978178
0.7135228258 -0.6874344781 -0.1353477572
-0.1519766772 0.1688298428 -0.9738580871
0.7558835165 -0.6545572241 -0.0139624476
-0.8009933158 0.4919304851 -0.3411951141
-0.2354720031 -0.3898170317 0.8902783933
-0.1310083472 -0.0907732566 0.9872168094
-0.1008044042 -0.9038364131 0.4158343546
0.2100953163 -0.9749984253 -0.0723742270
-0.3763581902 0.1099051878 0.9199322597
0.0729298193 0.0821506935 -0.9939479388
-0.2044525859 0.5974541082 0.7754016564
0.8630301325 0.4960535753 -0.0954454866
-0.9471560204 0.2982014688 -0.1182004946
-0.0986197132 0.0694822891 -0.9926965114
0.1199620032 0.2016388004 0.9720858563
0.5721800141 -0.6745542103 -0.4664618407
0.9772125714 0.1900681744 -0.0944969804
0.0178942878 0.6634201217 0.7480331119
-0.3878173303 -0.5804958129 0.7159764867
0.6168880113 -0.7197256755 -0.3185029569
-0.4289598566 -0.8488782707 -0.3088674845
0.6541239363 -0.4368077507 -0.6175118338
-0.1676042356 0.3345149769 0.9273664596
0.2612957871 0.5152883178 0.8162122648
-0.8762101600 0.3635694518 0.3163431828
0.9923138140 0.0846043751 0.0903072219
-0.3184095547 -0.0074360134 -0.9479240799
0.4424028081 0.7272635787 -0.5247546498
-0.9320262958 -0.3358681717 -0.1360865727
0.2318063842 -0.4336226220 0.8707681792
-0.5915878917 0.5327062247 0.6051841410
0.0973889057 0.6235338526 -0.7757067331
-0.0883478785 -0.9109422981 -0.4029625068
-0.1099247279 -0.4385843870 -0.8919418645
-0.0768115714 -0.2578076463 0.9631382040
-0.7361335301 0.2797325882 -0.6163254862
0.7760701760 -0.3045549162 -0.5522330893
0.1868463142 -0.7692866330 0.6109717924
0.2476117345 -0.2531499147 0.9352024110
0.1638953415 -0.2516495897 0.9538400291
0.1076228182 0.3722095097 0.9218879595
0.0234438452 0.2538188588 0.9669676174
0.1910374629 -0.1784758090 -0.9652207382
0.7974548547 0.6012808459 -0.0502702596
-0.3560170771 -0.0286294149 0.9340407900
0.0688269507 -0.5628990591 0.8236549643
-0.5882253981 0.7635333731 0.2664726425
0.4478136265 0.3421409698 -0.8260765780
-0.2613025135 -0.4285213072 -0.8649222426
-0.1042273987 -0.9448796806 0.3103853066
0.4793441160 -0.7609227854 0.4372936463
-0.5252388790 -0.5142610906 0.6779820431
0.0733299324 -0.0963067341 -0.9926468325
0.2256491501 0.2304249272 -0.9465658001
0.7269011545 -0.6824163883 -0.0769583309
-0.2937903588 -0.7472397417 -0.5960872365
0.0134757177 -0.0176604440 -0.9997532264
-0.6715912761 -0.1614141670 -0.7231255938
-0.9870120588 0.1584405305 -0.0265291173
0.2742893346 -0.1833414081 0.9440080980
-0.2914643851 0.7463245634 0.5983712546
0.5076070517 0.0964453153 0.8561736869
0.1374292459 0.7922183200 0.5945614651
-0.7613648320 0.2571507533 0.5951445897
0.6947783373 0.5254236726 -0.4911344279
0.0045947601 -0.0716627263 0.9974183384
-0.1080130940 0.1606485663 -0.9810836915
-0.1201381667 -0.2819182430 0.9518870338
0.5206102341 -0.8238275097 0.2242169004
0.9410727006 0.0688705659 -0.3311178301
-0.1669350915 -0.2192046490 0.9612918376
-0.0608358710 -0.2100292672 0.9758005450
-0.0684681695 0.0687522359 -0.9952814877
-0.1405727818 -0.0058752846 -0.9900529148
-0.3841322411 0.6539658256 0.6517446741
-0.0256953202 -0.1315154416 -0.9909810488
0.0306173968 0.2334907169 0.9718768750
0.1608015682 0.5357872638 0.8288997910
-0.3215819174 -0.8535930360 -0.4098341119
0.6709413961 -0.3989469349 -0.6250431874
-0.3035271719 0.9356835534 -0.1799098211
-0.2128832374 -0.6771247533 0.7044024387
0.6315663623 0.5650748509 -0.5308618868
0.1126694293 0.1437544685 -0.9831786473
0.8388916468 0.2248879540 0.4956674420
0.0894066075 -0.0366912910 -0.9953191487
0.3383105142 -0.8292034283 0.4449355802
0.0007378241 0.0063880588 -0.9999793239
0.6327500588 -0.7453900909 -0.2098117619
0.3002764250 -0.7314355740 0.6122385725
-0.6887686775 0.1825062438 -0.7016332232
0.1910629100 -0.0328468145 -0.9810280583
-0.4384785258 -0.4344537298 0.7867569759
0.1558227156 0.2394356654 -0.9583265850
-0.6509358759 -0.6624550704 -0.3707233000
-0.3614712357 0.4015373858 0.8414905071
0.2208698877 -0.1183464088 0.9680963899
0.1429446810 0.0775067901 -0.9866911957
-0.5827733879 -0.1411904291 0.8002752283
0.4194320620 0.0412138080 0.9068506864
0.6341504790 0.7597691640 0.1435408909
-0.1932349373 -0.1116898611 -0.9747746580
-0.3378959085 0.1022740008 -0.9356101666
0.6022558569 0.1578297176 0.7825456300
-0.0494094219 -0.7539210377 -0.6551044023
-0.3682580781 -0.1629628370 0.9153300507
0.0861329245 0.9369528896 -0.3386744778
0.7178386592 -0.5877383768 0.3731906481
-0.1309701146 0.9162266894 0.3786495513
-0.0006729351 0.0155011809 0.9998796230
-0.4252586006 -0.9037687128 0.0485513781
-0.0089632868 -0.1518411569 -0.9883642661
-0.3007738063 0.3783306323 -0.8754433449
-0.4693603371 -0.3335284543 0.8175938136
-0.0604139799 -0.2192651438 -0.9737930723
0.3478489078 -0.5954685012 -0.7241673850
0.0384586932 -0.0664053637 -0.9970512808
0.2629956284 0.3076055356 -0.9144463538
0.0851016209 -0.0343853635 0.9957787711
0.1950364627 -0.4338901985 -0.8796022248
0.8217690909 -0.5522237150 0.1405152300
0.2957660437 -0.5248960239 0.7981269394
-0.6174414426 -0.5492157204 0.5631413299
-0.2950718704 -0.8857662291 0.3582607691
-0.6963495211 0.5935029236 0.4035487878
-0.9765552388 -0.0944773993 -0.1934266955
-0.6907899340 0.0937231301 -0.7169555370
0.7629735853 -0.6390590090 0.0973390527
0.0943870803 0.8970216456 -0.4317907438
-0.0335685805 0.7690986660 -0.6382479083
-0.0479791525 0.0703472971 -0.9963680338
-0.7265576945 -0.1853126317 -0.6616442739
-0.0153656497 0.5358124132 -0.8441972250
0.9106852841 0.3557529896 0.2099812461
0.0306602947 -0.0343233372 -0.9989403660
0.2191826670 0.8891155331 -0.4017866689
-0.2166580491 0.9353982316 0.2794448747
-0.2553852273 -0.9346646308 0.2473467475
0.9932033847 -0.0720317927 0.0914246003
0.6061490621 -0.7188419136 -0.3403668872
0.3609858400 -0.1023062204 0.9269426415
0.1093842873 0.9792757096 -0.1704528152
0.2716532474 0.3631764859 0.8912392234
-0.7537749202 -0.1510934399 -0.6395264983
0.8097121849 0.5864121037 -0.0220685824
-0.1562456033 0.4519895709 -0.8782327364
-0.9485099718 -0.1958857435 -0.2489128541
0.1490343394 0.2399709972 -0.9592719563
-0.9595741251 -0.2765914470 0.0521024947
-0.1438082691 -0.0371441306 -0.9889082340
0.7684245705 0.1294816315 0.6267042257
0.2139648977 0.1252675531 0.9687760643
0.0618502377 0.2063846436 -0.9765141714
0.4211106413 0.6574454289 -0.6248450494
-0.1182644838 0.5044654675 -0.8552941622
-0.6235532055 -0.4281758281 -0.6541000383
0.0826977404 0.4056203452 0.9102929305
-0.1922240731 -0.7632581144 0.6168362477
0.4807319430 0.4293312424 -0.7645727456
0.8108135183 -0.1329202161 0.5700119776
-0.3145698336 0.2088989640 -0.9259627652
-0.5579764274 0.1903455621 -0.8077319317
-0.5021431760 0.6402999044 0.5812643661
0.0334200837 -0.7497618793 -0.6608632402
-0.8983707786 0.4060844335 -0.1674078165
0.3387212791 0.0315663029 0.9403570937
0.4296295961 -0.8602792078 0.2744778586
0.0570230560 -0.0545698796 0.9968803837
-0.7426467877 0.2847001521 0.6061530930
0.5698516429 0.5647017362 0.5969765943
-0.9830327726 0.1297365319 0.1296726661
0.5011683373 -0.0118917052 0.8652681001
0.7500022231 -0.6612497677 -0.0156655694
-0.1368900218 0.9746658305 0.1768831277
-0.4152483508 -0.9054490426 0.0879251866
-0.5801232979 0.3707945998 0.7252367365
0.3802519633 -0.2188986535 -0.8986054885
-0.0928158552 -0.5621309694 0.8218235761
-0.2250382247 0.8879074794 0.4012207689
-0.7294907854 0.6765159418 -0.1008433168
-0.4777568170 0.2707009396 -0.8357448326
0.1585933631 -0.5431178277 0.8245430070
0.8656807864 0.3934559365 0.3094983071
-0.7579286424 -0.5900947189 -0.2780870290
0.9417749666 0.3325870175 0.0494549095
-0.6762354223 -0.2846950917 -0.6794515129
0.1000444094 -0.1302907074 -0.9864154539
0.9090544557 0.2474518755 0.3352425477
-0.3802457679 -0.0599031697 0.9229435336
-0.1362099731 0.3309965188 0.9337495102
0.6290984893 -0.1654920159 0.7595047620
0.2126817940 0.5709266099 0.7929749432
0.3093577914 0.3991811823 0.8631061005
-0.5335361917 0.3730440180 -0.7590634314
-0.3363914967 0.3565430285 -0.8716179380
0.7733927968 0.6311474212 -0.0593002078
0.1244661700 -0.5226675065 -0.8434019505
-0.4528733975 -0.8767586104 -0.1618642176
0.1201987634 -0.6854359207 0.7181433394
0.1985875288 0.3160754255 0.9277172623
-0.0852345692 0.5381017538 -0.8385592232
0.2018538031 -0.1836444857 -0.9620445650
0.7931969040 0.2073833852 0.5725651082
0.5657291686 0.5019130115 -0.6542429493
-0.9481942375 0.1670380700 0.2702331793
-0.3693017020 0.3550690674 -0.8588027773
-0.5288681943 -0.5068616097 0.6807273622
-0.5381764063 0.5023930704 -0.6767328561
-0.0785111022 -0.7959409542 -0.6002616132
-0.1666774685 -0.0828409986 -0.9825253129
0.9898164089 0.1403056112 -0.0240377215
-0.0054909245 0.0110000957 0.9999244210
-0.2802952258 -0.2940747762 0.9137585088
-0.0149654270 -0.9764007615 0.2154474156
-0.5011450786 0.6387675037 0.5838062063
0.4205591112 -0.6553350749 -0.6274280624
-0.9886162043 0.1335374844 0.0693234508
0.2156018470 -0.8808353549 -0.4214794433
-0.0673793036 -0.1293206598 0.9893109705
-0.2523546703 -0.0007954004 0.9676344804
-0.4581957329 -0.5827880676 -0.6711294500
0.4972990160 -0.4939577611 0.7132316727
-0.3860052306 0.6844058222 0.6185374948
-0.2637145611 -0.2669891557 -0.9269150021
-0.4780916570 0.3470219837 -0.8068482573
-0.0337548455 -0.0675541053 -0.9971444495
-0.7977298223 -0.5744431750 0.1834180179
0.0851300559 0.5087692145 -0.8566835822
-0.1606815785 -0.6824689131 0.7130340897
0.9780630113 -0.0971481031 -0.1842688038
-0.5495146379 -0.6614006293 0.5104731827
0.3837322377 0.7378157164 0.5553175113
-0.0211188830 -0.0461018101 -0.9987134804
0.6396183992 -0.7603391817 -0.1130160704
-0.2505124733 0.8382160812 0.4843937468
-0.9439464705 -0.2624261990 -0.2002437289
-0.5442197617 -0.7917877220 -0.2773031813
0.8462749424 -0.2423338768 -0.4744396843
0.4049436539 0.1242836924 -0.9058555078
-0.9334051093 0.3088504218 0.1826644980
0.5818281985 -0.4916251252 -0.6479048416
-0.9224815519 0.3848579945 0.0302011656
0.3876133487 -0.7235184658 0.5712065489
0.3612071850 0.7671305524 0.5301321393
-0.0863885064 -0.0474504895 0.9951308844
0.0856049840 0.0572681176 -0.9946819338
-0.9933616926 -0.1068049948 -0.0427228363
-0.3329469092 0.1596153221 -0.9293381002
-0.2737274586 -0.9569519958 0.0965202371
-0.9203733057 -0.1315814365 -0.3682381073
0.0047909536 0.2250696867 -0.9743308898
0.1441847705 0.1959235073 -0.9699612009
-0.1572391344 0.2888063930 -0.9443869556
-0.8018695585 0.5766016760 -0.1566388152
0.3975725897 0.5536394865 -0.7317235509
0.0833283793 0.3066828888 0.9481571531
0.2619691276 -0.2722335635 0.9258839361
0.9905266620 -0.0844175872 -0.1083079073
0.0011158522 -0.0021396159 -0.9999970885
-0.5674112628 0.1667955518 -0.8063644974
0.6412046098 0.5466642640 0.5385302506
-0.4424549873 0.8699152905 -0.2179012885
-0.1075840721 -0.8886192255 0.4458492340
0.0703719100 -0.1555640581 0.9853159991
-0.2045599977 0.1530377013 0.9668167713
0.9160551996 0.0439013102 -0.3986421281
-0.0233275458 0.1699023222 -0.9851847677
-0.6921091068 -0.2698459464 -0.6694536201
-0.7179288503 0.0851611350 -0.6908876515
-0.8166081630 0.5019537251 0.2849448471
-0.4811369714 0.1339249807 0.8663551894
-0.6747924020 -0.1579270799 -0.7209120971
-0.1703202256 0.2043455518 -0.9639677983
-0.0532706202 -0.2245963184 0.9729947250
0.0933984752 -0.1746726726 0.9801868099
-0.2802732040 -0.8668423947 0.4123483890
-0.3578844766 0.5065663211 -0.7844165117
0.0407219718 -0.6566038533 0.7531355129
-0.9509286196 0.1397930513 -0.2760301855
-0.5647705401 -0.1490178229 0.8116821579
0.9029697364 0.2760697123 -0.3292888840
-0.7242954856 -0.5255644493 0.4462936916
-0.1602456096 -0.6584457025 0.7353710638
-0.2016376165 0.3017653967 -0.9318153878
-0.0597333353 -0.0133985938 -0.9981244443
0.6450347412 -0.3462238178 -0.6812189447
0.1298631174 -0.6953858716 -0.7068055321
-0.1370014378 0.2122659882 -0.9675607249
-0.3833963037 -0.8571879656 0.3438547164
0.2228205765 -0.8041653824 0.5510617283
0.1094656019 0.0352737916 0.9933645059
0.0527429402 -0.0173993067 0.9984565320
-0.1925147229 0.0202384036 -0.9810853625
-0.6419397724 -0.2653320595 -0.7193832267
-0.6861735698 -0.3096318386 0.6582506792
0.0827976164 0.6724565564 -0.7354908120
0.5110804306 0.2493481274 0.8225705470
-0.8751923811 0.0867522502 0.4759331289
-0.5223381988 0.8509680969 0.0549190698
-0.5886404695 -0.8036266067 -0.0876736828
-0.4065283790 0.3292466292 -0.8522507461
0.3343496740 0.6113974954 -0.7172192120
0.2475876869 0.1236422023 -0.9609437773
0.8416945033 0.5385749173 0.0385671040
-0.3601365722 -0.6794220420 -0.6392865854
-0.3295641856 -0.5642601633 0.7569662580
-0.6322270168 -0.2706597395 -0.7259699061
0.5913609612 -0.1319736735 0.7955345140
-0.5184873610 -0.8499398465 0.0936649022
-0.7359338687 0.6022287354 -0.3093895461
0.2074465565 0.2601717805 0.9430146185
0.0341852292 0.5111253230 -0.8588261025
-0.2572101290 0.0494367485 0.9650901292
-0.5390564490 -0.4502611523 -0.7118167177
-0.3379951701 -0.1419989875 -0.9303738778
0.5201271380 -0.5562414599 -0.6481228268
-0.1419779314 -0.8874892665 0.4384119852
0.5632605695 0.2311963582 -0.7932753461
-0.6733997737 0.6189963284 0.4041983303
-0.0115785734 0.0265716151 -0.9995798547
0.1852198262 0.5116408202 -0.8389977873
-0.0802515016 0.0838039226 0.9932454878
-0.7147068542 -0.4872521870 0.5017762638
0.3095212920 -0.7574202587 0.5749009667
0.1640098294 -0.4513042484 -0.8771688841
-0.7924534261 -0.4628141140 0.3972664890
0.9089283793 0.2304256451 -0.3474956451
